ply
format ascii 1.0
comment PCL generated
element vertex 575
property float x
property float y
property float z
property uchar red
property uchar green
property uchar blue
property float nx
property float ny
property float nz
property float curvature
element camera 0
property float view_px
property float view_py
property float view_pz
property float x_axisx
property float x_axisy
property float x_axisz
property float y_axisx
property float y_axisy
property float y_axisz
property float z_axisx
property float z_axisy
property float z_axisz
property float focal
property float scalex
property float scaley
property float centerx
property float centery
property int viewportx
property int viewporty
property float k1
property float k2
end_header
-0.073314272 0.81356311 -0.11354346 8 8 10 -0.45264101 0.038389601 -0.8908661 0
0.069070973 0.81586236 -0.11350081 21 22 25 0.81376231 0.16181085 -0.55821872 0
-0.062933832 0.82570982 -0.11849607 9 9 11 -0.47760954 0.025993589 -0.87818766 0
0.063942812 0.83634973 -0.11569574 18 17 23 0.81307441 0.12207963 -0.56921577 0
-0.073294014 0.84182191 -0.11176538 5 3 7 -0.45738178 0.0986448 -0.88378233 0
0.059850227 0.84785944 -0.11963567 23 22 27 0.7722249 0.10927866 -0.62588096 0
-0.072682321 0.86308962 -0.11074525 11 9 14 -0.30331621 0.032582771 -0.95233274 0
-0.062480211 0.86550659 -0.11376468 8 7 10 -0.27298379 0.11352792 -0.9552964 0
-0.058990274 0.86732388 -0.11446743 9 9 11 -0.27357382 0.12543099 -0.95363748 0
-0.054508086 0.90317184 -0.11408594 2 2 6 -0.45489877 0.16296138 -0.87550592 0
-0.047803611 0.91851807 -0.11460666 0 0 3 -0.53728741 0.20796154 -0.81735814 0
-0.039826334 0.92462802 -0.11982881 0 0 1 -0.55471396 0.11418574 -0.82416868 0
0.014224989 0.96654427 -0.1153494 34 25 26 0.9163568 0.36572826 0.16288956 0
-0.066362143 0.98404098 -0.11519607 1 1 5 -0.78922409 -0.14647748 -0.59638053 0
0.010394355 1.0138854 -0.11747293 45 33 34 0.94082677 -0.0010293055 0.33888623 0
-0.073102124 1.033823 -0.11379877 33 32 37 -0.88621277 -0.46285281 0.019854588 0
-0.0018653172 1.0445828 -0.11507545 34 28 30 0.79696208 0.19713442 -0.5709548 0
0.00092004618 1.0457556 -0.11092257 31 27 28 0.70196778 0.18438405 -0.68792713 0
-0.097330913 1.0812825 -0.1189041 42 37 36 -0.76474249 -0.36832538 -0.52868259 0
0.0012278504 1.0880175 -0.11187623 40 34 36 0.85137033 -0.25212127 -0.46000382 0
-0.11320767 1.0966415 -0.11116663 23 17 17 -0.59199613 -0.33790693 -0.73168272 0
-0.1130772 1.104609 -0.1150517 24 18 18 -0.61607492 -0.33020157 -0.71513534 0
-0.12223203 1.1153604 -0.11119729 31 25 25 -0.61728275 -0.23281746 -0.75150394 0
-0.11497783 1.1129045 -0.11677893 25 19 19 -0.66402972 -0.27727714 -0.69439316 0
-0.12322095 1.1248016 -0.11279216 33 27 27 -0.65840012 -0.16080862 -0.73528898 0
-0.0023358925 1.1268909 -0.11862746 63 48 50 0.8056193 -0.017008547 -0.59218931 0
-0.0033892808 1.1352228 -0.11555707 58 45 45 0.7778694 0.4252089 -0.46272731 0
-0.01134563 1.1471999 -0.11694116 91 71 70 0.69472647 0.15817596 0.70166624 0
-0.13121998 1.1531389 -0.11310274 27 24 25 -0.70565134 -0.37685496 -0.60003036 0
-0.1296494 1.1591545 -0.1188776 17 15 16 -0.7428937 -0.35142657 -0.56974405 0
-0.15535872 1.22497 -0.11743817 26 25 26 -0.66773093 -0.10442346 -0.73704219 0
0.00013147097 1.2446544 -0.11706699 18 19 23 0.88340396 -0.29291084 0.36578774 0
-0.15973985 1.2692028 -0.11860254 23 19 20 -0.92591256 0.021263098 -0.37713921 0
-0.16070127 1.287173 -0.11188815 20 18 19 -0.95939159 0.022580082 -0.28117251 0
-0.16144085 1.3069984 -0.1131163 25 23 26 -0.98989272 -0.088330336 -0.11095103 0
-0.16168304 1.3158796 -0.11328785 27 25 28 -0.99911779 0.041962158 -0.0016645017 0
0.01649067 1.3155271 -0.1157272 20 20 24 0.93906558 -0.036123805 -0.3418346 0
-0.16040951 1.3413725 -0.11977921 11 9 10 -0.90284252 0.18475762 0.38825265 0
0.012913942 1.341625 -0.11394849 27 29 35 0.91576505 0.38309044 0.12089715 0
-0.1493295 1.3592682 -0.11577309 14 12 13 -0.76265603 0.63099557 -0.14212826 0
0.0011405196 1.3626906 -0.11646014 22 24 29 0.84576905 0.52068079 0.11647383 0
-0.017763466 1.3921493 -0.11104051 45 46 51 0.77157277 0.61675549 -0.15584661 0
-0.041822094 1.4078377 -0.11576261 46 47 52 0.46829742 0.8446877 -0.25923002 0
-0.064643793 1.4211683 -0.11138619 44 43 49 0.29096326 0.81721085 -0.49750054 0
-0.025573876 1.6846843 -0.1116285 151 146 140 -0.78547734 -0.3421903 -0.51568496 0
-0.041675355 1.71823 -0.11132593 160 155 149 -0.88888335 -0.25207284 -0.38255158 0
-0.28201714 0.0031876646 -0.10128412 229 210 180 0.088204391 0.98086089 0.17358559 0
-0.27207369 0.0029067541 -0.10338043 235 218 188 0.045365386 0.98183817 0.18421687 0
-0.23661488 0.009422129 -0.10440938 217 200 171 -0.080130763 0.98377007 0.16054758 0
-0.093086869 0.0098929228 -0.10566412 118 113 100 0.11461014 0.99319148 0.020862058 0
0.071026564 0.0099885538 -0.10074832 197 177 150 0.015115393 0.99967784 -0.020392673 0
0.12491992 0.0099324845 -0.10471293 210 189 160 0.0073214578 0.99996638 -0.0036977436 0
0.16900554 0.0089973593 -0.10785604 206 190 165 0.034839612 0.99799889 0.052768447 0
-0.432632 0.01112657 -0.10329646 204 184 160 0.067985021 0.99556935 0.064959854 0
-0.41524312 0.010377644 -0.10427868 206 186 161 0.02856995 0.99829471 0.05090601 0
-0.20529908 0.011372497 -0.10570797 218 198 171 0.0051774015 0.997886 -0.064782254 0
-0.095574208 0.010165786 -0.10756117 95 89 78 -0.095969126 0.99443048 0.043565195 0
-0.073850267 0.011080969 -0.10498747 157 148 133 -0.13876459 0.98864919 0.057595041 0
0.10119613 0.010147661 -0.10009552 196 176 149 0.0056118579 0.99997211 0.0049294638 0
0.25399771 0.010623609 -0.10606217 127 119 105 0.29927295 0.93796915 0.17506975 0
-0.067735836 0.55832076 -0.10298503 87 63 51 -0.088957921 -0.71405739 -0.69441241 0
-0.083792649 0.56576854 -0.10023253 83 56 47 -0.63194984 0.036615834 -0.77414382 0
-0.062350467 0.56293273 -0.10725017 91 62 51 0.047765065 -0.68577999 -0.72623986 0
-0.046277504 0.58440238 -0.10782511 6 7 7 0.4126187 -0.027444623 -0.91049039 0
-0.033619273 0.595384 -0.10343727 9 9 9 0.27502397 -0.45755982 -0.84557724 0
-0.01745351 0.59597659 -0.10665102 9 8 10 0.062250953 -0.95578945 0.28738722 0
0.0052787922 0.59836209 -0.10829154 12 12 14 0.29910666 -0.91088432 0.28429738 0
-0.039943639 0.60263687 -0.10700397 9 9 9 0.16269961 -0.09381751 -0.98220521 0
-0.077643439 0.61326778 -0.10336116 10 10 10 -0.50926179 0.036661871 -0.85983044 0
0.033801381 0.61349177 -0.10559311 15 14 16 0.64961529 -0.70618981 0.28159523 0
0.046157464 0.63588107 -0.10526241 13 13 14 0.93135804 -0.16933845 0.32233012 0
0.046972848 0.64844561 -0.10082172 14 13 13 0.90285587 -0.26496878 0.33858955 0
0.0505394 0.65732193 -0.10299375 19 19 19 0.92545199 -0.36588049 0.098336428 0
0.056865904 0.67420667 -0.1050472 16 16 16 0.96702361 -0.23535945 0.097320475 0
-0.086783275 0.7381593 -0.1031586 13 13 15 -0.47477439 -0.020643197 -0.87986547 0
0.067141719 0.74597025 -0.10504766 13 13 15 0.93465328 -0.081916444 -0.34599555 0
-0.086968124 0.75433606 -0.10371637 10 10 12 -0.4984861 -0.095565207 -0.86161411 0
-0.095086411 0.80709946 -0.10333268 12 12 14 -0.43138546 -0.003844629 -0.90215951 0
-0.084309779 0.80412555 -0.10844154 8 8 10 -0.45176566 0.047951531 -0.89084709 0
0.076887742 0.80475771 -0.10424814 25 26 29 0.84419602 0.03333272 -0.53499728 0
0.075335532 0.81598645 -0.10452318 16 19 23 0.8027671 0.048782174 -0.59429389 0
-0.097722284 0.82400262 -0.10219196 9 8 11 -0.30130777 -0.064851046 -0.9513191 0
0.069793463 0.82990301 -0.1099041 25 25 27 0.80807734 0.34287345 -0.47900814 0
-0.084681295 0.83250302 -0.10672981 11 10 14 -0.36831367 0.008073058 -0.92966652 0
-0.10353322 0.84121925 -0.10185689 18 16 21 -0.21654339 -0.094229117 -0.97171497 0
-0.095425665 0.84457767 -0.1039277 9 7 12 -0.2417603 -0.056210045 -0.96870655 0
-0.0774033 0.86467481 -0.10916489 12 10 15 -0.30355105 0.049244236 -0.95154184 0
0.039595015 0.8888216 -0.10301965 14 15 20 0.83966088 0.21973622 -0.49667448 0
0.041717082 0.88197875 -0.10324701 15 18 23 0.82216442 0.39932144 -0.40569454 0
-0.093848221 0.89377493 -0.10298047 11 11 13 -0.24096803 0.096528836 -0.96572083 0
-0.084762901 0.89033747 -0.10559271 15 13 18 -0.27525771 0.10345186 -0.95578814 0
-0.090875939 0.90768355 -0.10187557 5 6 10 -0.22404642 0.15145747 -0.96273774 0
-0.082043871 0.91674322 -0.10215991 4 5 9 -0.2122387 0.17731532 -0.96099639 0
0.034655828 0.91514593 -0.1029177 19 18 23 0.7052418 0.41980684 -0.57131094 0
-0.065296419 0.92462426 -0.10514177 0 1 5 -0.2743468 0.15723425 -0.94868916 0
-0.067366749 0.93522179 -0.1033383 0 0 3 -0.29351783 0.039579887 -0.95513386 0
-0.072541341 0.94424027 -0.1016018 4 2 7 -0.26579234 -0.0040019979 -0.96402198 0
-0.064129502 0.94644195 -0.10487736 1 1 3 -0.45582223 -0.074125528 -0.88697886 0
-0.059369311 0.94558316 -0.10771295 0 0 0 -0.55903786 -0.16380684 -0.81280011 0
0.018514 0.94453567 -0.1064607 32 28 33 0.94861203 0.19144335 -0.2519615 0
0.013505349 0.97629631 -0.10535644 27 21 24 0.87686741 0.1333985 -0.46185318 0
-0.069374979 0.99743336 -0.10803062 0 0 0 -0.91309661 0.25378716 -0.31913444 0
-0.068515912 1.0076869 -0.10630488 2 2 5 -0.97485381 0.043531317 -0.21855216 0
0.014957738 1.0053406 -0.10487989 33 29 33 0.77407843 0.005145845 -0.6330688 0
0.012756628 1.025574 -0.10407954 32 26 29 0.75913346 0.19805659 -0.62007254 0
-0.087704696 1.0535033 -0.10865283 28 25 24 -0.75008243 -0.46758643 -0.46769583 0
-0.096059345 1.0638076 -0.1061213 28 22 22 -0.71965379 -0.45874479 -0.52120209 0
-0.12435176 1.0961441 -0.10202342 23 19 20 -0.55951828 -0.34978497 -0.75139195 0
-0.13115904 1.105103 -0.10050726 26 24 25 -0.64974427 -0.26209575 -0.71353924 0
-0.12726472 1.1058534 -0.10389314 27 22 22 -0.59872478 -0.27470842 -0.75237215 0
0.0081508104 1.1113845 -0.10745808 45 38 40 0.83031791 -0.014693402 -0.55709636 0
-0.0055017574 1.1549002 -0.10244261 24 23 28 0.68154812 0.10922275 -0.72357625 0
-0.15145235 1.1783797 -0.10066561 22 22 22 -0.74710107 -0.30418059 -0.59102809 0
-0.0066057588 1.1725985 -0.10595057 16 17 22 0.91712129 -0.14650157 -0.37070993 0
-0.16848619 1.2363366 -0.10499551 13 8 7 -0.83309311 -0.056301378 -0.55025989 0
0.0084026214 1.2604992 -0.10851829 5 6 11 0.76958805 -0.56038278 -0.30611345 0
-0.1643873 1.2751155 -0.10538677 16 11 9 -0.91025656 0.15512988 -0.38388491 0
-0.16348897 1.2832745 -0.10471241 20 14 13 -0.93126053 0.11072417 -0.34712237 0
0.025036309 1.2835443 -0.10410055 29 30 35 0.77798063 -0.20694776 -0.59322739 0
-0.16131835 1.3174584 -0.10335006 24 22 25 -0.98670501 0.16071275 0.024181882 0
0.019015763 1.3141443 -0.10941629 5 5 7 0.92244041 0.094607666 -0.3743704 0
-0.15974772 1.3283275 -0.10738533 23 21 22 -0.95077735 0.29607984 0.091428444 0
-0.14965947 1.3592536 -0.10675015 19 17 18 -0.88497072 0.44769633 0.12804268 0
-0.00098601705 1.3664378 -0.10453951 32 33 38 0.88072062 0.46877542 -0.067682333 0
-0.022157647 1.3984289 -0.10400492 44 45 50 0.7066704 0.68914205 -0.16031264 0
-0.014480781 1.3902586 -0.100855 28 29 34 0.82872623 0.5425756 -0.1372029 0
-0.083931953 1.4261957 -0.10542241 30 28 32 -0.13233396 0.8142795 -0.56518734 0
-0.02402252 1.6723506 -0.10511603 151 145 138 0.043010693 -0.7646119 -0.64305419 0
-0.029038997 1.6949058 -0.10389311 153 148 142 0.92696518 -0.3739562 -0.029873706 0
-0.042716756 1.7159619 -0.1040941 152 147 140 -0.92886853 -0.3229911 -0.18132778 0
-0.03866969 1.7145586 -0.10734371 172 166 159 0.74038768 0.67182302 -0.021906998 0
-0.36251432 0.0074233129 -0.095111296 210 190 163 0.094853558 0.99445772 0.045351386 0
-0.27693379 0.0024798426 -0.094161145 213 202 172 0.063297078 0.99793726 -0.010708904 0
-0.07767123 0.009609364 -0.09180589 52 48 39 -0.047894552 0.99495 -0.088208288 0
0.06571494 0.0099784033 -0.091407448 191 172 147 -0.0038051435 0.99998164 0.0047138063 0
0.10014973 0.0099482872 -0.092333719 210 189 160 0.0029359639 0.99960172 0.028067701 0
0.17269327 0.0085504847 -0.094322786 202 186 163 -0.0042416891 0.9999885 -0.0022450944 0
0.18225408 0.0085622249 -0.096679375 202 187 167 -0.034665473 0.99874532 -0.036139444 0
0.26570705 0.0098342961 -0.099668227 207 194 177 0.014654952 0.98872101 -0.14905037 0
-0.42347118 0.010086876 -0.09172067 203 183 158 0.057648633 0.99739808 0.043286704 0
-0.20726937 0.011998069 -0.095026776 217 200 172 0.028764846 0.9985922 -0.044567797 0
-0.16033395 0.011497431 -0.097684339 208 191 161 0.021870369 0.99845052 -0.051169097 0
-0.063787065 0.011581545 -0.098026834 157 147 133 -0.077636465 0.9932335 0.086370505 0
-0.036706638 0.013006065 -0.097430363 167 155 139 -0.023197712 0.99971461 0.0057173097 0
0.0035768962 0.012460771 -0.094849713 176 160 141 0.067071527 0.99701047 -0.038359836 0
0.023449469 0.011015874 -0.093814775 187 170 148 0.059425905 0.99821448 0.0060313269 0
0.03544696 0.01045019 -0.090816535 189 171 149 0.038488358 0.99922574 0.0081647681 0
0.20709886 0.011165635 -0.095471866 196 183 167 -0.18294983 0.98241383 -0.037316117 0
0.2543124 0.010408811 -0.093490101 187 174 159 0.097810186 0.98698795 -0.12762466 0
0.29374292 0.011357976 -0.09880098 199 183 168 -0.093620695 0.99559796 -0.004474327 0
0.30737981 0.012786484 -0.093987003 204 189 174 -0.11499057 0.99296552 0.028226364 0
0.35409975 0.013995214 -0.098781802 169 162 146 0.041988514 0.99871022 -0.028545765 0
-0.075693525 0.55505252 -0.098099984 88 62 50 -0.21324056 -0.6100015 -0.76316887 0
-0.094090536 0.56517929 -0.092338808 46 34 29 -0.56776381 0.020721309 -0.82293069 0
-0.092325509 0.57270336 -0.092951819 13 13 13 -0.58745939 0.026758248 -0.80881113 0
-0.092031777 0.5805223 -0.093320489 13 13 13 -0.61420774 -0.024830814 -0.78875363 0
-0.084505826 0.58176625 -0.099147938 12 12 12 -0.58553231 0.008584002 -0.81060362 0
-0.092425421 0.592471 -0.093136981 15 15 14 -0.61631334 -0.0025401865 -0.78749698 0
-0.016667837 0.59828478 -0.094407789 8 7 5 0.17954616 -0.97849947 0.101499 0
-0.092161447 0.60535252 -0.093210116 12 12 11 -0.59716725 0.01977594 -0.80187291 0
0.028461931 0.61260033 -0.094617762 11 11 13 0.66649282 -0.68591374 0.29207799 0
-0.08532016 0.6510188 -0.097008348 15 14 12 -0.60368752 -0.022057636 -0.79691583 0
-0.085958891 0.66776896 -0.097723335 13 12 10 -0.60774767 -0.072208673 -0.79084045 0
-0.088521615 0.6826188 -0.097638674 14 14 14 -0.59919095 -0.10152692 -0.79414266 0
-0.089217789 0.69763905 -0.098977216 11 11 11 -0.57301265 -0.11517138 -0.81141365 0
0.064408332 0.70642346 -0.094591998 12 12 13 0.97400898 -0.19438428 -0.11628111 0
-0.10159065 0.72539932 -0.093669631 11 11 13 -0.57094938 -0.066196248 -0.81831229 0
-0.10464352 0.73342258 -0.092168637 16 16 18 -0.583637 -0.062660553 -0.80959344 0
0.06913013 0.73660326 -0.09730459 16 16 18 0.95578086 -0.11065183 -0.27246845 0
-0.096020356 0.7436868 -0.098158173 14 14 16 -0.49887282 -0.020390498 -0.86643529 0
-0.10909238 0.76199782 -0.091466598 18 16 17 -0.54831296 -0.04844261 -0.83486897 0
-0.11387126 0.78016001 -0.090435579 15 13 14 -0.57910502 -0.11503208 -0.80709666 0
0.082159296 0.80502653 -0.093416356 20 22 26 0.96121031 -0.0067725186 -0.27573317 0
0.081415772 0.81312132 -0.093800157 20 21 26 0.93823564 0.15187097 -0.31088442 0
-0.11672918 0.82545179 -0.095001929 14 12 17 -0.44872078 -0.18063362 -0.87522632 0
-0.12810977 0.83450478 -0.090738997 16 16 18 -0.50972444 -0.20811464 -0.83478707 0
-0.11672367 0.85410893 -0.098730907 9 8 12 -0.34819567 -0.021097034 -0.93718445 0
-0.11280519 0.86557859 -0.099899985 12 12 14 -0.25096774 0.047264196 -0.96684086 0
0.057880804 0.86780739 -0.098373681 5 8 15 0.62092566 0.70885289 -0.33463246 0
0.06392163 0.86431348 -0.093401298 12 13 18 0.70160133 0.65849477 -0.2722871 0
-0.1137647 0.87272346 -0.099234745 12 10 15 -0.30391675 0.056273468 -0.95103514 0
0.047792386 0.87724155 -0.096173413 18 21 26 0.71725613 0.67512596 -0.17247778 0
0.051525295 0.87398851 -0.095199488 21 23 28 0.62812966 0.76075941 -0.16339594 0
0.043791272 0.88402849 -0.097397432 16 18 26 0.89073139 0.31633511 -0.32638872 0
-0.10681354 0.89550608 -0.099453062 16 15 20 -0.26688227 0.10068108 -0.95845562 0
0.045759913 0.90406412 -0.09338814 26 26 31 0.77173054 0.0015491007 -0.63594782 0
-0.11370626 0.91281366 -0.095997028 14 12 17 -0.2117926 0.081996158 -0.97386885 0
-0.11546643 0.92091894 -0.094977632 7 8 12 -0.21280771 0.074089073 -0.97428113 0
-0.089685977 0.92854834 -0.099045068 5 6 10 -0.18078503 0.096823484 -0.97874516 0
0.040774934 0.92149359 -0.091829203 21 22 26 0.56433982 0.46790195 -0.68013847 0
-0.10637899 0.93398046 -0.09575589 5 6 10 -0.15957907 0.082436502 -0.98373711 0
-0.095703073 0.93479788 -0.097383276 5 6 10 -0.15328906 0.096207872 -0.98348695 0
-0.12429106 0.94823903 -0.091554679 9 10 14 -0.17931889 0.10178415 -0.97851151 0
-0.11596145 0.94399494 -0.093425468 6 7 11 -0.17458925 0.071551695 -0.98203814 0
-0.085861161 0.97609913 -0.09721566 7 7 10 -0.42296353 0.037579931 -0.90536714 0
-0.085622244 0.99578881 -0.093378276 14 14 16 -0.38230708 0.24123313 -0.89199096 0
0.018026248 0.99585509 -0.099856444 34 32 37 0.75096691 -0.174381 -0.63689876 0
0.024486743 0.99643111 -0.092183724 31 28 35 0.78735596 -0.044206392 -0.61491168 0
-0.083820492 1.0256276 -0.091757447 11 11 13 -0.46596685 -0.19604903 -0.86280912 0
-0.084527016 1.0350189 -0.095731787 1 1 2 -0.50794095 -0.46615461 -0.72435892 0
0.020088006 1.0317085 -0.093553685 43 41 46 0.77314687 0.1442066 -0.61761516 0
-0.094802022 1.0426692 -0.092768252 8 6 9 -0.59443521 -0.3554762 -0.7213068 0
0.015725736 1.0459752 -0.094825387 33 29 31 0.73072088 0.24383059 -0.63764691 0
-0.098755792 1.0583116 -0.09880586 20 16 15 -0.62398154 -0.46775427 -0.62598163 0
-0.11653975 1.0751972 -0.095663801 16 13 14 -0.54234415 -0.47865763 -0.69047064 0
0.0097206514 1.0740497 -0.098141417 27 23 24 0.8091076 -0.010214942 -0.5875718 0
0.012747504 1.0844997 -0.094500132 31 26 29 0.80371189 -0.056256469 -0.59235322 0
-0.12696384 1.0937376 -0.099259585 22 18 19 -0.54580832 -0.33448675 -0.76825249 0
-0.1338141 1.1074588 -0.099145897 27 24 25 -0.61614567 -0.21925315 -0.75650018 0
-0.15518409 1.1674584 -0.092289403 27 25 26 -0.70769346 -0.12673476 -0.6950599 0
0.0021852457 1.1932776 -0.094566636 28 29 34 0.71646744 0.011244636 -0.69752985 0
0.00082241907 1.2129077 -0.097854495 28 29 34 0.65771914 -0.13082361 -0.74181581 0
-0.17507708 1.2243209 -0.090642609 17 11 10 -0.89280063 -0.15688889 -0.42224753 0
0.0056907847 1.2246305 -0.096517704 29 29 35 0.61025983 -0.19953535 -0.76666075 0
-0.17366858 1.2356852 -0.096271999 14 8 6 -0.89208633 -0.078014113 -0.44507942 0
0.013239942 1.2458125 -0.097014189 27 28 33 0.58328599 -0.25397912 -0.77153879 0
0.015473437 1.254856 -0.098450109 32 33 38 0.6007427 -0.28814009 -0.74571007 0
-0.17304316 1.265983 -0.090240456 20 15 12 -0.89779985 0.20989509 -0.38716865 0
0.02512796 1.2647339 -0.093421042 30 31 36 0.67747891 -0.30603167 -0.66885489 0
-0.16781425 1.2752304 -0.097511068 18 13 10 -0.90094715 0.16815209 -0.40002385 0
-0.16678107 1.284153 -0.096143462 19 14 11 -0.91804409 0.16575609 -0.36016673 0
0.030186096 1.2888962 -0.095439211 27 28 33 0.92743999 0.030861344 -0.37269661 0
-0.16458857 1.2932569 -0.098426983 23 18 16 -0.94099069 0.088296562 -0.3267113 0
0.02869736 1.2961688 -0.098089814 29 30 35 0.9227187 0.11323388 -0.36846742 0
0.02825455 1.307364 -0.094044074 37 38 43 0.90835476 0.22300839 -0.35377803 0
0.021485569 1.3347555 -0.091315709 22 20 25 0.82975596 0.31150296 -0.46311018 0
-0.15431245 1.3466889 -0.095453836 20 18 19 -0.95199198 0.30544996 0.02028954 0
0.0059401579 1.3565037 -0.097572185 41 42 47 0.82039434 0.48966703 -0.29526153 0
-0.14734016 1.3645757 -0.095371939 20 18 19 -0.88682401 0.45644876 -0.072095431 0
-0.0083323382 1.3838093 -0.092133857 42 45 50 0.79684705 0.57789665 -0.17626756 0
-0.053088017 1.4235101 -0.095986277 45 46 51 0.4792825 0.77543831 -0.41107631 0
-0.02757456 1.6756823 -0.096054621 144 137 128 -0.16221015 0.16815373 -0.97232306 0
-0.028381256 1.6830148 -0.094067506 134 128 121 -0.084503517 0.42706314 -0.90026456 0
-0.031438164 1.6965848 -0.098519109 151 147 142 -0.2623212 -0.91873246 0.29515806 0
-0.02974188 1.6932412 -0.094069786 145 140 134 0.86104918 -0.26688218 -0.43286046 0
-0.041333329 1.7087624 -0.095908724 154 151 144 -0.88605422 -0.45711115 -0.077184245 0
-0.40404046 0.009139685 -0.084966861 205 184 157 0.037689555 0.99904668 0.02202839 0
-0.37664276 0.008108668 -0.086376756 204 183 156 0.038364962 0.99911582 0.017196691 0
-0.34604725 0.0056090504 -0.089673296 209 188 161 0.094310604 0.99497664 0.033571623 0
-0.3280364 0.0043806857 -0.081032485 216 197 167 0.04659747 0.99821937 0.037240565 0
-0.31347191 0.0046611507 -0.084310248 219 199 170 -0.039398756 0.99777526 0.053779759 0
-0.29199129 0.0055428483 -0.084166601 225 209 176 0.055460386 0.9922474 -0.11121688 0
-0.27520052 0.0029013497 -0.083829962 215 200 170 0.10168752 0.99285012 -0.062516354 0
-0.26458123 0.002018759 -0.084288426 139 129 108 0.082720913 0.98759663 0.13345459 0
-0.25371453 0.0021494816 -0.084831454 154 142 119 -0.21995097 0.97173607 -0.085735366 0
0.11598444 0.0095517533 -0.083121322 218 198 173 0.0061648334 0.99832052 0.057603993 0
0.18606967 0.0095141474 -0.081089526 205 191 172 -0.073075429 0.99609023 -0.049640596 0
-0.43278861 0.010448718 -0.087678298 204 184 159 0.057751965 0.99736685 0.043865651 0
-0.19749787 0.012137135 -0.084931359 213 193 164 0.016122101 0.99944848 -0.029033894 0
-0.17644539 0.011918923 -0.086472847 214 196 167 -0.02499732 0.99952018 -0.018293301 0
-0.15551731 0.01182855 -0.085659154 206 185 158 0.031688828 0.99923366 -0.02297806 0
-0.13461658 0.012667422 -0.08419247 205 186 161 -0.055111993 0.99822253 -0.022679925 0
-0.027089087 0.012788854 -0.084930576 162 153 137 -0.005507018 0.99716878 0.074994482 0
-0.016287254 0.012925991 -0.08462359 163 151 135 -0.020873545 0.99669826 0.078466445 0
0.0026133724 0.012636716 -0.082925342 174 161 142 0.032954849 0.99940616 0.010068517 0
0.26858136 0.010574144 -0.083602458 208 195 179 0.014458898 0.9997201 0.018725475 0
0.27914768 0.010665908 -0.082470283 204 191 174 -0.03754063 0.99929404 0.001483226 0
-0.086499251 0.29790765 -0.080112755 103 73 62 0.27212629 -0.10017355 -0.95703322 0
-0.096138149 0.30474663 -0.08343114 101 72 59 0.24008624 -0.095808551 -0.96601206 0
-0.08407215 0.33430624 -0.081575468 104 75 61 0.41142124 -0.042038497 -0.91047531 0
-0.11287598 0.35578108 -0.088866301 97 68 55 -0.089730926 -0.031593975 -0.9954648 0
-0.12571779 0.36102316 -0.086403862 103 71 60 -0.26347986 -0.0023740618 -0.96466202 0
-0.07743714 0.37468874 -0.082604513 108 75 66 0.45899299 -0.050778754 -0.88698757 0
-0.10058363 0.38691172 -0.088966683 103 70 61 0.13926105 0.024680538 -0.98994809 0
-0.1185748 0.39504325 -0.087566778 97 67 56 -0.23033547 0.035086829 -0.97247851 0
-0.079726748 0.39259744 -0.083609201 109 76 67 0.36731562 0.066645488 -0.92770559 0
-0.078467183 0.4000676 -0.082324788 110 77 70 0.43071592 0.10530305 -0.89632308 0
-0.11610896 0.41673014 -0.086885989 99 66 57 -0.15971024 0.050341904 -0.98587948 0
-0.096263796 0.43418407 -0.086119875 103 73 62 0.17954816 0.07201954 -0.98110938 0
-0.085578814 0.43433005 -0.083213136 104 74 63 0.28720033 0.067928538 -0.95545888 0
-0.10437593 0.46230915 -0.080639556 102 72 61 -0.32720673 0.35754073 -0.87470019 0
-0.084507793 0.52751988 -0.081672758 97 68 54 -0.34569362 0.079723462 -0.93495458 0
-0.055403549 0.54315609 -0.085969172 86 58 47 0.45339078 -0.51500165 -0.72746825 0
-0.045536753 0.54831159 -0.082261696 50 35 30 0.77018833 -0.35664529 -0.52878553 0
-0.036287382 0.56220287 -0.081144117 16 12 11 0.72129077 -0.51861209 -0.4591091 0
-0.033616111 0.57326406 -0.088216603 12 11 9 0.73141396 -0.44793817 -0.51418388 0
-0.10547887 0.58197129 -0.082326874 14 13 11 -0.67002082 0.043656342 -0.74105752 0
-0.10444697 0.59079278 -0.083444007 11 11 11 -0.63888854 -0.015716802 -0.76913875 0
-0.097969048 0.6016345 -0.088715851 12 10 11 -0.62542409 0.017994149 -0.78007746 0
-0.0044689146 0.60222495 -0.0861573 10 9 9 0.3777788 -0.92431629 0.054059658 0
-0.10625721 0.62038839 -0.080774911 12 11 9 -0.66111845 0.052657597 -0.74843144 0
0.04679551 0.66051775 -0.083198249 13 11 12 0.88405138 -0.41466239 0.21565804 0
0.053982496 0.67361617 -0.08954253 14 13 14 0.90497857 -0.41522753 0.09273535 0
-0.10859943 0.696527 -0.083041936 16 16 16 -0.70115626 -0.14244534 -0.69863385 0
0.0618365 0.69550288 -0.084473439 13 13 13 0.93863958 -0.34422812 0.021512046 0
-0.11298616 0.75090528 -0.087841958 16 16 17 -0.60104907 -0.098319247 -0.79314142 0
-0.11897706 0.76517516 -0.084637739 16 16 16 -0.71808928 -0.09850549 -0.6889444 0
-0.12185939 0.7835772 -0.085148975 14 12 13 -0.64851314 -0.13025761 -0.7499758 0
0.080895014 0.78623265 -0.08279521 10 10 15 0.95090365 -0.26713631 -0.15627021 0
-0.1247002 0.79454577 -0.084169269 13 12 12 -0.62521189 -0.11402878 -0.77207994 0
-0.12432837 0.81760406 -0.089061499 14 13 17 -0.53240663 -0.1651254 -0.8302269 0
0.081299007 0.82298094 -0.088225961 21 24 29 0.95428652 0.18180969 -0.23723932 0
0.073709242 0.85420877 -0.08645197 11 11 17 0.86294252 0.3703773 -0.34373096 0
-0.14168155 0.88634849 -0.084083542 11 11 13 -0.71370506 -0.0083440049 -0.70039672 0
-0.14328854 0.89320892 -0.082402475 5 3 4 -0.75494409 0.019476935 -0.65549988 0
-0.13439031 0.90751702 -0.089168727 13 12 15 -0.40165597 0.0014976501 -0.91578943 0
-0.14128605 0.91362923 -0.085592784 10 9 11 -0.58249962 -0.068652138 -0.80992657 0
0.037785001 0.92894399 -0.088496365 15 19 22 0.50169933 0.55318171 -0.66504723 0
-0.13492712 0.94786024 -0.089301266 11 11 16 -0.21856909 0.083207004 -0.97226757 0
0.031682014 0.95421624 -0.080814272 26 26 31 0.72746801 0.056253169 -0.68383175 0
-0.13555014 0.97553211 -0.08429496 14 12 17 -0.273157 0.26218137 -0.92555177 0
-0.10823531 0.98705328 -0.088393763 7 6 9 -0.22369674 0.20989953 -0.95178884 0
0.032762595 0.98067558 -0.080865882 35 34 40 0.75209445 -0.075362034 -0.65473241 0
-0.10670836 0.99500275 -0.087012425 10 10 12 -0.24164948 0.20500912 -0.94846022 0
-0.10291807 1.0149692 -0.084563233 14 14 16 -0.28594467 0.091066152 -0.95390916 0
-0.094450668 1.0107883 -0.08740849 24 24 26 -0.28495029 0.10351471 -0.95293653 0
-0.10411117 1.0254058 -0.083608389 12 12 14 -0.36728573 0.013722263 -0.93000686 0
0.02516797 1.0247109 -0.088790104 44 42 48 0.75506407 0.12221304 -0.64416015 0
-0.11439078 1.0620385 -0.088244036 14 12 13 -0.51906252 -0.46389225 -0.71789837 0
0.022863381 1.0651367 -0.08295384 34 33 36 0.71440643 0.10007105 -0.6925382 0
-0.12724485 1.0773504 -0.089560404 15 13 14 -0.44462875 -0.48346868 -0.75403142 0
-0.14484026 1.0848889 -0.082971022 15 13 14 -0.48592445 -0.35083064 -0.80049694 0
0.017336829 1.0843949 -0.088605285 34 32 33 0.7662766 -0.052293397 -0.64037931 0
-0.14439766 1.0968581 -0.087390326 21 18 19 -0.63094783 -0.21548881 -0.74529821 0
-0.15121788 1.1064618 -0.083866484 22 20 21 -0.67216241 -0.1745497 -0.71953458 0
0.024911417 1.1169684 -0.085589588 41 36 40 0.75534678 -0.18623199 -0.62830639 0
-0.15383646 1.1239064 -0.085368142 21 18 19 -0.69813257 -0.14411935 -0.70131344 0
0.023883414 1.1354764 -0.087526545 40 34 38 0.62271512 0.20081484 -0.75624019 0
-0.16250749 1.155705 -0.082815558 30 26 27 -0.74757755 -0.13550439 -0.65020484 0
-0.15835884 1.1551523 -0.087062083 31 29 30 -0.69461477 -0.14169478 -0.70528919 0
-0.16410168 1.1667126 -0.083157808 34 31 32 -0.71979874 -0.11913618 -0.68388331 0
-0.17151308 1.1992496 -0.084572829 32 27 24 -0.78214085 -0.26135263 -0.56564176 0
0.016406324 1.2040005 -0.084709711 27 26 31 0.55363369 -0.048447665 -0.83134985 0
-0.17497337 1.2149109 -0.086742066 24 19 16 -0.86312979 -0.18629928 -0.46936089 0
0.023237955 1.2163146 -0.08163631 28 29 33 0.59256077 -0.14991774 -0.79145211 0
0.018295033 1.2218451 -0.086461201 25 26 31 0.56259632 -0.20355946 -0.80127954 0
0.021154378 1.2273896 -0.085749194 32 33 37 0.61992502 -0.18088299 -0.76352757 0
0.036860924 1.2769996 -0.081719689 37 38 43 0.85669005 -0.0023834761 -0.51582593 0
-0.17053261 1.2863235 -0.085328758 20 16 12 -0.92563009 0.18084717 -0.33242035 0
-0.16895454 1.2887554 -0.088453345 20 15 12 -0.92800021 0.16100089 -0.33599764 0
-0.17036952 1.2931135 -0.081343785 21 16 13 -0.9129042 0.2409873 -0.32944047 0
-0.15967368 1.3262346 -0.085657977 24 18 18 -0.97713333 0.20939046 -0.036961198 0
-0.1519646 1.3548402 -0.080000654 21 19 20 -0.93880963 0.33913645 -0.060192179 0
-0.136207 1.3861988 -0.086485147 23 22 20 -0.84762931 0.51179385 -0.1399703 0
-0.0072637973 1.384253 -0.085859157 17 18 23 0.77762198 0.59725904 -0.1964322 0
-0.12651463 1.3988488 -0.088897765 24 22 23 -0.76754755 0.60937834 -0.19881822 0
-0.10453196 1.4262842 -0.084008738 33 32 34 -0.72018409 0.63137931 -0.28756735 0
-0.066327035 1.43647 -0.083446212 29 32 38 0.31518605 0.8383975 -0.4446879 0
-0.05809892 1.4343785 -0.080477446 36 37 42 0.45182741 0.78865999 -0.4169741 0
-0.029989108 1.6912439 -0.086424597 149 144 138 -0.96472079 0.005946273 -0.26320812 0
-0.041285206 1.7082176 -0.08702334 149 146 140 -0.73353136 -0.67457324 0.082962781 0
-0.40654588 0.0094943531 -0.0726173 209 188 159 0.032386921 0.99702275 -0.069976464 0
-0.3578949 0.0065464028 -0.07479766 213 192 163 0.11346684 0.99353272 0.0042510373 0
-0.31456459 0.0040239077 -0.071087711 227 209 179 -0.054539774 0.99576616 0.073995002 0
-0.2936278 0.0048224078 -0.073821962 230 211 178 0.090470217 0.98270702 0.16156118 0
-0.26451677 0.0016795002 -0.074458741 153 140 116 -0.099440597 0.96846533 -0.22844362 0
-0.072613478 0.009734191 -0.076063462 158 149 135 -0.13501203 0.99071801 -0.015799968 0
-0.42682779 0.010230326 -0.072489783 204 183 158 0.057095643 0.99819088 -0.018841505 0
-0.11463954 0.012087844 -0.073401459 182 168 148 0.15123127 0.9880107 0.031047538 0
-0.081733704 0.010328511 -0.074385285 155 146 131 0.066988349 0.98952633 -0.12786828 0
0.18879114 0.010019734 -0.074900486 210 197 178 -0.07975775 0.99588722 -0.042981088 0
0.20751484 0.011871102 -0.072725691 207 194 177 -0.11351134 0.98376161 -0.139026 0
0.25214559 0.01047829 -0.072554365 216 202 184 0.059359796 0.99741638 0.040459532 0
0.30188882 0.012131334 -0.071138695 198 181 161 -0.051768374 0.99862111 -0.0087133059 0
0.39638966 0.014036657 -0.073997378 193 180 164 0.060133189 0.99787337 -0.025153298 0
0.40705222 0.013394052 -0.074285232 191 179 163 0.04699865 0.99887788 -0.0058405413 0
-0.095067486 0.24558924 -0.073503122 98 69 57 -0.039843634 -0.11897641 -0.99209732 0
-0.084425941 0.26697126 -0.074790634 101 71 60 0.24461886 -0.15835032 -0.95660174 0
-0.12514763 0.2767604 -0.073996417 101 69 54 -0.46454468 -0.30254701 -0.83226413 0
-0.10182852 0.27236271 -0.078659929 104 74 63 0.055858042 -0.22174788 -0.97350287 0
-0.084618933 0.27407131 -0.076022945 97 67 56 0.25808904 -0.16973442 -0.95109427 0
-0.077835537 0.2753849 -0.07374952 106 76 65 0.42747238 -0.12690449 -0.89507687 0
-0.1286348 0.28916302 -0.076314598 103 70 55 -0.54895574 -0.2345075 -0.80228043 0
-0.092918217 0.28061628 -0.079255469 97 67 56 0.20262212 -0.17504068 -0.96348584 0
-0.085693359 0.29020143 -0.078889348 98 68 57 0.31085712 -0.12744744 -0.94187313 0
-0.1295535 0.30418354 -0.079526387 99 66 51 -0.5238741 -0.16943789 -0.83477354 0
-0.077251412 0.30365416 -0.07665354 105 75 64 0.44649675 -0.068256669 -0.89217812 0
-0.066297926 0.33717141 -0.070016906 114 81 72 0.73443985 -0.00023129016 -0.6786738 0
-0.14499345 0.34581324 -0.075663157 99 65 53 -0.60822403 -0.15204778 -0.77906674 0
-0.065895915 0.34333494 -0.070216268 119 86 77 0.74929255 -0.17245813 -0.63938946 0
-0.15273255 0.3676002 -0.07106337 91 58 43 -0.82932597 0.038002022 -0.55747139 0
-0.14197829 0.36222538 -0.079968542 95 61 49 -0.54403484 -0.072784506 -0.83589989 0
-0.067669608 0.37823921 -0.077373497 111 81 71 0.53456956 -0.044578224 -0.84394801 0
-0.14699046 0.38583305 -0.076414838 94 61 46 -0.64656675 0.050782766 -0.7611652 0
-0.063302033 0.39410782 -0.07440567 114 83 74 0.59644395 0.05090294 -0.80103904 0
-0.15058285 0.40108344 -0.070132442 87 54 39 -0.7649622 0.14867283 -0.62668109 0
-0.07623589 0.42794052 -0.079802908 111 78 69 0.40095043 0.029003551 -0.91564053 0
-0.13494697 0.43674886 -0.074152544 97 65 47 -0.57254463 0.21278323 -0.79178023 0
-0.077303939 0.45815349 -0.078343436 112 79 70 0.30242059 0.082668312 -0.94958293 0
-0.1149206 0.46675715 -0.074404828 98 69 55 -0.40947109 0.33793068 -0.84742922 0
-0.11357349 0.4723537 -0.073104821 101 69 58 -0.39377567 0.27576384 -0.87686658 0
-0.069279894 0.4708128 -0.074515648 106 76 66 0.35084027 0.01265505 -0.93634981 0
-0.10151802 0.49783945 -0.075145759 100 68 55 -0.51245713 -0.066945642 -0.85609931 0
-0.076368317 0.49721396 -0.077667743 105 75 65 0.17279834 -0.11118644 -0.97866148 0
-0.057707082 0.49639165 -0.07103283 99 69 59 0.45412129 -0.12497457 -0.8821311 0
-0.0477289 0.51694244 -0.070983104 89 61 49 0.51773083 -0.27093318 -0.81151098 0
-0.094712824 0.52556062 -0.076678529 100 71 57 -0.48611349 0.12398419 -0.86505586 0
-0.10130665 0.5353018 -0.071722686 94 62 47 -0.62593889 -0.02814406 -0.77936411 0
-0.10632416 0.54715675 -0.073705047 91 61 47 -0.46255064 -0.51050007 -0.72487009 0
-0.028812259 0.56671506 -0.074399352 7 6 4 0.74334526 -0.46976265 -0.47619411 0
-0.11455683 0.57640761 -0.074062608 11 11 10 -0.70550907 0.10626589 -0.70068854 0
-0.11482847 0.58657026 -0.073304869 9 8 6 -0.70249587 -0.015125629 -0.71152705 0
-0.10953335 0.58530056 -0.078492954 15 14 12 -0.6872164 -0.019798804 -0.72618294 0
-0.02163347 0.58392048 -0.079901665 8 8 6 0.74698722 -0.42916396 -0.50776803 0
-0.11196119 0.61748058 -0.075402424 7 6 4 -0.73175341 0.060759421 -0.6788559 0
0.026129022 0.61833447 -0.076743126 12 12 14 0.66603923 -0.71069127 0.2265162 0
-0.11378177 0.62485111 -0.072772861 9 8 6 -0.74126482 0.069882929 -0.66756481 0
-0.10804179 0.64322388 -0.077644341 13 12 10 -0.72606462 0.022855466 -0.68724656 0
-0.10800296 0.65262401 -0.077859819 11 10 8 -0.70907521 -0.025917955 -0.70465636 0
0.047868464 0.66517758 -0.073340364 14 12 13 0.87306184 -0.4710117 0.12613913 0
0.067180328 0.71489298 -0.07418035 13 13 13 0.97785306 -0.20896938 -0.011626002 0
-0.12481321 0.72355413 -0.070031807 9 8 6 -0.78098208 -0.11798598 -0.61330771 0
-0.11964107 0.72194713 -0.076364271 14 12 13 -0.79021853 -0.14094675 -0.59639645 0
0.069159091 0.72399503 -0.073232055 11 11 13 0.97803605 -0.20843071 -0.0014593696 0
-0.11911886 0.73624134 -0.079818681 14 12 13 -0.7412492 -0.11549091 -0.66121966 0
0.070968516 0.73353505 -0.074960254 11 10 11 0.98242682 -0.17664808 -0.060274307 0
0.072826847 0.74499601 -0.075695567 13 12 13 0.9878071 -0.14726584 -0.050496839 0
0.074659586 0.75564367 -0.074393205 19 19 19 0.9846617 -0.17447418 0.00039080458 0
-0.13039538 0.78486079 -0.077223152 17 15 16 -0.72542393 -0.18265353 -0.66362476 0
-0.1341753 0.79417586 -0.075248592 13 11 12 -0.72612584 -0.2010067 -0.65752393 0
0.083122887 0.79591119 -0.075028598 7 8 13 0.99003357 -0.1393283 0.020524247 0
0.079865262 0.8481698 -0.077646978 13 14 19 0.92302674 0.1929272 -0.33286741 0
0.076268062 0.85704565 -0.076913312 14 15 20 0.7649197 0.53532553 -0.358224 0
0.06550879 0.86830163 -0.076655112 11 13 17 0.57743049 0.72815198 -0.36928129 0
0.056012638 0.8925513 -0.077286534 16 19 26 0.77578121 -0.14322257 -0.61453295 0
0.060362294 0.89485812 -0.072319262 24 27 32 0.78135395 -0.12517099 -0.6114068 0
0.061447702 0.90666574 -0.072128177 26 29 34 0.81396979 -0.062083486 -0.57758009 0
-0.15267168 0.93193394 -0.07451658 2 0 2 -0.9176873 -0.11859132 -0.37919125 0
0.039372195 0.93829799 -0.079272792 20 21 25 0.49504709 0.54764456 -0.67454714 0
0.05351682 0.93297315 -0.073925562 23 24 28 0.56745499 0.46517748 -0.67941493 0
0.034356952 0.94538772 -0.079478428 21 22 27 0.61656868 0.22313374 -0.75501943 0
-0.15495598 0.95363271 -0.076230317 17 17 17 -0.9334805 -0.040962171 -0.3562811 0
0.042345818 0.96447766 -0.071971409 27 27 34 0.58638179 -0.010352068 -0.80996865 0
0.044591606 0.97409636 -0.070383973 32 32 40 0.586366 -0.0067737796 -0.810018 0
-0.13518448 1.0057858 -0.075123489 10 10 12 -0.40500459 0.26949593 -0.87369514 0
0.042103484 1.0017058 -0.071284741 31 31 39 0.70643383 0.043945022 -0.70641357 0
-0.1192583 1.0160542 -0.07861121 6 4 9 -0.39235291 0.21155514 -0.89515567 0
0.037026566 1.0144637 -0.075777702 40 41 46 0.78449166 0.073797055 -0.61573279 0
-0.11703068 1.0251768 -0.077947363 4 2 7 -0.4288674 0.13339388 -0.89346451 0
-0.11719671 1.0345626 -0.077074669 7 7 9 -0.48685297 0.019995783 -0.87325501 0
-0.11986426 1.0433102 -0.075918481 8 6 9 -0.55491769 -0.16821525 -0.81472081 0
-0.14001302 1.0572315 -0.070467748 11 11 11 -0.25572133 -0.49980912 -0.82752496 0
-0.12847055 1.0613917 -0.078558698 13 11 12 -0.41712081 -0.47813961 -0.77291185 0
-0.15281263 1.0739233 -0.073552459 12 11 10 -0.54926306 -0.22035232 -0.80607378 0
-0.14731048 1.0727763 -0.075938873 14 13 14 -0.37429833 -0.44180724 -0.8152957 0
0.031464893 1.0768201 -0.072643399 40 41 46 0.74709523 0.054914016 -0.66244489 0
-0.16028753 1.0884567 -0.071585827 11 10 8 -0.61952353 -0.18305938 -0.76333469 0
0.033408303 1.1176765 -0.075049743 42 41 45 0.79338759 -0.21574199 -0.56920254 0
-0.16568889 1.1238915 -0.072239578 10 7 6 -0.74672055 -0.076020919 -0.66077912 0
0.032390565 1.1459281 -0.078624398 38 36 39 0.61379355 0.13315804 -0.7781558 0
0.035555631 1.1524262 -0.074900933 37 35 38 0.63205206 0.13823704 -0.76249635 0
-0.16933392 1.1769745 -0.079271063 35 29 29 -0.80191505 -0.18314488 -0.56867409 0
-0.17556565 1.1943855 -0.076275647 33 28 27 -0.80803305 -0.22010881 -0.54647481 0
-0.17770526 1.2053628 -0.077855498 33 28 25 -0.82666683 -0.27399403 -0.49147666 0
0.028621871 1.214767 -0.077191569 29 30 34 0.60319328 -0.13628398 -0.78586549 0
0.03179707 1.2239274 -0.076476231 31 30 35 0.65767503 -0.13100937 -0.74182212 0
-0.18291974 1.2447593 -0.074893698 21 18 11 -0.94101208 0.09106157 -0.32588956 0
0.039786786 1.2839824 -0.075955451 36 37 42 0.81800067 0.19758709 -0.54021686 0
0.041075081 1.2902362 -0.070412442 43 44 49 0.85624653 0.30250466 -0.4187277 0
-0.16791525 1.3067575 -0.07559742 24 21 15 -0.89014053 0.35924304 -0.28034678 0
0.034430664 1.3049941 -0.074916281 36 37 42 0.91889441 0.19509928 -0.34288383 0
0.033049606 1.3136743 -0.074188165 43 44 49 0.92806947 0.13727021 -0.34618491 0
0.028940879 1.3294021 -0.078827351 24 23 29 0.92966717 0.2232186 -0.29307422 0
0.018084388 1.354363 -0.075010255 38 41 48 0.75902605 0.57383674 -0.30755627 0
0.0033701065 1.3747514 -0.073416591 24 25 30 0.75824302 0.61326241 -0.22130692 0
-0.13752092 1.3869132 -0.076478735 23 22 20 -0.85184336 0.50228798 -0.14855897 0
-0.024080953 1.4039247 -0.074460909 21 23 27 0.61021698 0.7652632 -0.20495716 0
-0.1066213 1.4270085 -0.07724762 33 33 35 -0.73701864 0.5986473 -0.31372756 0
-0.10270024 1.4338334 -0.073278375 32 31 35 -0.71331424 0.62228489 -0.322404 0
-0.096695125 1.4385597 -0.076229483 25 25 30 -0.60230398 0.70568395 -0.37314874 0
-0.049718503 1.4309355 -0.070281461 32 33 38 0.71566224 0.65930343 -0.23053534 0
-0.094132304 1.4427866 -0.070600592 26 28 33 -0.43813813 0.8072871 -0.39537632 0
-0.074987054 1.4435164 -0.075702943 26 28 33 0.1743435 0.85126781 -0.49492159 0
-0.040895279 1.6484228 -0.071772084 104 101 94 -0.44769496 -0.56433928 -0.69360685 0
-0.036377259 1.6557869 -0.075820863 110 103 95 -0.62676328 0.70393378 -0.33413306 0
-0.035442095 1.6642894 -0.077044152 126 120 114 -0.55263197 0.7355262 0.39191714 0
-0.031682476 1.6984804 -0.078598157 142 137 132 -0.47763082 -0.61536604 0.62705135 0
-0.035589583 1.7108482 -0.075081483 139 134 127 0.096892349 0.96328604 0.25038365 0
-0.34294453 0.0047375755 -0.066158906 216 196 169 0.11634417 0.99315423 0.010426168 0
-0.28730378 0.0035796307 -0.064308658 75 66 52 0.053707611 0.99768203 -0.041785114 0
0.11633336 0.0094141625 -0.06721957 207 186 159 0.028135825 0.99960369 0.0009290197 0
0.13380159 0.0091225393 -0.062770434 218 198 171 -0.0056277802 0.99997896 0.0032330069 0
0.17226936 0.0091786394 -0.068773195 212 197 176 -0.013878737 0.99899668 -0.042579841 0
-0.25205487 0.010351224 -0.063495487 212 191 162 -0.13860004 0.98028904 -0.14079574 0
-0.19289696 0.012559357 -0.06432353 208 188 158 0.0088404734 0.99963433 -0.025556734 0
-0.18154068 0.012391832 -0.068623424 204 183 152 -0.010573314 0.99958336 -0.026858119 0
-0.1317495 0.012529566 -0.064780481 184 168 143 0.028088674 0.99848276 0.04736254 0
-0.054672766 0.010658638 -0.065567337 108 102 89 -0.033747226 0.99912 0.024906667 0
0.012890952 0.01161103 -0.065270565 157 144 130 0.06621851 0.99774885 -0.010596409 0
0.19562697 0.01060334 -0.063932188 203 188 168 -0.12206498 0.98790151 0.095659547 0
0.21461941 0.011430382 -0.065193817 150 139 122 0.073036924 0.99345171 0.087859429 0
0.24856272 0.010624947 -0.062721685 210 197 178 0.046779137 0.99873203 -0.018604167 0
0.28329006 0.011153169 -0.065023825 205 188 169 -0.074896008 0.99700367 -0.019345373 0
0.29591233 0.01190443 -0.063934013 196 180 160 -0.045243144 0.99863178 -0.026222665 0
0.35496926 0.014970357 -0.065195084 199 185 169 0.11993821 0.9900713 -0.073305473 0
0.3807078 0.014950608 -0.06199209 196 183 167 0.050578177 0.99859673 0.015698092 0
0.42703262 0.012909785 -0.067393795 174 162 146 -0.0026086911 0.99961793 0.027519371 0
-0.079182319 0.20904246 -0.063918069 107 77 67 0.4938274 -0.22562335 -0.8397789 0
-0.098818518 0.21692985 -0.068695702 96 66 55 -0.17393281 -0.28544384 -0.94248033 0
-0.11496824 0.2328828 -0.066029973 99 69 55 -0.42624208 -0.25431541 -0.8681252 0
-0.069744125 0.24407551 -0.063152172 115 83 70 0.58937448 -0.15027051 -0.79376101 0
-0.072788492 0.25816256 -0.068190396 116 83 71 0.55412614 -0.16138884 -0.81663811 0
-0.13770565 0.28373802 -0.066686854 103 70 54 -0.67647785 -0.28333727 -0.67977774 0
-0.063139208 0.30331245 -0.065820388 115 83 71 0.76435596 -0.068197168 -0.64117783 0
-0.058998592 0.30974454 -0.060295176 123 89 77 0.86379427 -0.033788346 -0.50271058 0
-0.061453752 0.33548129 -0.064732239 116 84 73 0.8066538 0.032693963 -0.59011936 0
-0.15418628 0.3942059 -0.065317281 82 48 32 -0.89923608 0.13681319 -0.41551968 0
-0.05223285 0.39190573 -0.060537636 120 86 74 0.89811867 -0.014353417 -0.43951893 0
-0.1522041 0.41044256 -0.06387724 85 49 33 -0.87964803 0.16093738 -0.44756961 0
-0.053287279 0.42380121 -0.063507386 115 82 73 0.79020393 -0.01636857 -0.61262542 0
-0.14641877 0.43420696 -0.06285622 91 55 39 -0.82009405 0.23756224 -0.52058613 0
-0.11952276 0.48089367 -0.068117939 101 69 56 -0.40095967 0.22649467 -0.88765508 0
-0.055231035 0.48406339 -0.068773858 102 72 62 0.42791298 -0.055316567 -0.9021256 0
-0.052981559 0.49576622 -0.068755552 96 66 56 0.46981671 -0.13886595 -0.87177318 0
-0.11515363 0.50608349 -0.066113114 105 72 55 -0.4563475 0.21541321 -0.86333311 0
-0.10771093 0.53867447 -0.067808151 92 60 44 -0.49097925 -0.35755479 -0.79441416 0
-0.032739822 0.5319739 -0.062126528 86 58 46 0.72698689 -0.078568392 -0.68214154 0
-0.035566516 0.54445529 -0.067425415 72 46 38 0.74863636 -0.15167604 -0.64539748 0
-0.028161442 0.55821711 -0.064044565 15 11 10 0.76332444 -0.40372536 -0.50432301 0
-0.020260397 0.57374686 -0.067860365 10 9 7 0.7482695 -0.46390679 -0.47421864 0
-0.015610597 0.57395709 -0.060406025 13 7 7 0.75712717 -0.47615284 -0.44725496 0
-0.01646707 0.58087832 -0.068979904 9 9 7 0.69826776 -0.51570189 -0.49646121 0
-0.11912781 0.59479988 -0.067964435 7 6 4 -0.78377455 -0.0086628813 -0.62098503 0
-0.0031750863 0.59472001 -0.061438434 9 9 9 0.73210704 -0.49437892 -0.46862441 0
-0.12348212 0.60793573 -0.06150585 7 6 4 -0.84594148 0.018346757 -0.53296018 0
0.010560142 0.60918361 -0.063069932 10 9 7 -0.0072507709 -0.8481679 -0.52967793 0
-0.11905085 0.63390023 -0.065371618 7 6 4 -0.81938261 0.076741055 -0.56808716 0
-0.11845719 0.64385802 -0.065205328 9 8 6 -0.8423878 0.00035165969 -0.53887177 0
0.06914188 0.7247442 -0.063598111 12 10 11 0.9794938 -0.20147032 0.0012588162 0
0.070332617 0.72995257 -0.068068139 12 10 11 0.97392315 -0.22014517 0.054861374 0
0.076383591 0.76405168 -0.067138232 21 21 21 0.97699255 -0.21288137 -0.012928932 0
0.079522602 0.77781314 -0.066934533 14 16 21 0.97632831 -0.21575934 0.015195568 0
-0.14182551 0.78505892 -0.060448192 10 9 7 -0.83481711 -0.19470121 -0.51494843 0
-0.14201897 0.79251468 -0.063445993 8 7 5 -0.83441943 -0.22713186 -0.50215077 0
0.082415566 0.79434937 -0.06636969 8 9 14 0.99129075 -0.12398285 0.044394448 0
-0.15382436 0.83872426 -0.065719828 19 19 19 -0.86355364 -0.18053852 -0.47083005 0
0.08494582 0.84549993 -0.066190712 11 12 14 0.93561757 0.088582695 -0.34172058 0
0.070914499 0.87673187 -0.062358178 14 17 24 0.68973327 0.23633674 -0.68440706 0
-0.15615177 0.90769023 -0.064973727 13 13 13 -0.83066994 0.033176858 -0.55577582 0
0.066622108 0.90441829 -0.064792439 29 32 37 0.79984689 -0.025836607 -0.59964776 0
0.066086724 0.91482306 -0.065204382 26 29 34 0.79741824 0.075272396 -0.59871382 0
0.066106111 0.92366505 -0.063676476 28 31 36 0.77489835 0.15015313 -0.61399233 0
-0.15589303 0.93943995 -0.067132086 0 0 2 -0.96163023 -0.1066176 -0.2527847 0
-0.15739782 0.95636123 -0.066437535 15 14 12 -0.98871475 -0.044981722 -0.14289825 0
0.044034656 1.0160224 -0.067474581 36 37 42 0.72223234 0.095151685 -0.68507427 0
0.051619548 1.0106165 -0.06074227 34 34 42 0.68677652 0.1592858 -0.70920104 0
-0.14725813 1.0337923 -0.064882897 13 13 15 -0.27271038 0.048427999 -0.96087658 0
-0.16366883 1.0456234 -0.061227489 17 16 18 -0.34869459 -0.15708902 -0.92397791 0
-0.13394731 1.046398 -0.068580717 6 6 8 -0.38025412 -0.14069577 -0.91411787 0
0.04578368 1.0539761 -0.060484312 35 35 43 0.72542858 0.10574424 -0.68012619 0
-0.16545257 1.0661933 -0.064548261 10 9 8 -0.51676285 -0.11794174 -0.84796572 0
0.037232287 1.0656499 -0.067590058 37 38 43 0.72554296 0.10721929 -0.67977315 0
0.041523688 1.0746021 -0.061539255 36 37 42 0.73994046 0.12000021 -0.66188216 0
0.03525852 1.0825745 -0.067810774 37 36 42 0.74907732 0.063053235 -0.65947515 0
0.040190842 1.0842288 -0.061853115 41 40 46 0.77206033 0.077159517 -0.63084805 0
-0.17669287 1.1533517 -0.062566645 1 1 1 -0.79163241 -0.15388224 -0.59130234 0
0.042107571 1.1610628 -0.067452952 41 40 45 0.67918336 0.1315037 -0.72209191 0
-0.17674977 1.1729158 -0.066422857 5 4 2 -0.85377634 -0.14659798 -0.49957496 0
0.039063267 1.1925526 -0.068879992 41 39 44 0.59452116 0.01483856 -0.80394304 0
0.038983528 1.2097 -0.069027863 37 35 40 0.56430143 -0.039069243 -0.82464385 0
0.039464649 1.2217277 -0.069006786 38 35 42 0.72883487 -0.13692124 -0.67085934 0
0.045943588 1.2455055 -0.065659948 42 43 47 0.90665132 -0.037369557 -0.42022246 0
0.046623409 1.2541718 -0.064603932 37 38 43 0.90455043 -0.014309918 -0.42612636 0
-0.16715732 1.3165828 -0.064924486 25 22 15 -0.8633334 0.42071432 -0.27866632 0
0.027834119 1.3444376 -0.065913253 48 48 52 0.88047874 0.422039 -0.21596363 0
-0.15279861 1.3555263 -0.062502794 23 21 19 -0.95070529 0.3024188 -0.068574138 0
0.0040013772 1.3761587 -0.066788867 30 33 38 0.74336141 0.64603943 -0.17334035 0
-0.026366748 1.4080944 -0.066630006 20 22 27 0.60283107 0.75966632 -0.2439297 0
-0.018550847 1.4015414 -0.065430202 25 28 33 0.70856231 0.68173695 -0.18213819 0
-0.1124578 1.4259993 -0.065784007 29 29 32 -0.73585588 0.58605295 -0.33920231 0
-0.10383242 1.4365743 -0.065605998 30 29 34 -0.70650691 0.61469442 -0.35071176 0
-0.055041026 1.4375302 -0.065915309 31 31 37 0.64878088 0.71395653 -0.26334241 0
-0.048039269 1.5963001 -0.061228078 25 18 13 0.24135345 -0.32069546 -0.91591644 0
-0.061748154 1.6042566 -0.061746012 72 60 52 -0.4851774 0.27809992 -0.82901347 0
-0.045585606 1.6048999 -0.063518494 39 34 31 0.3039532 -0.35110909 -0.88562685 0
-0.053328566 1.6135147 -0.062414192 50 43 41 -0.4388608 0.37047851 -0.81862497 0
-0.04420634 1.6163325 -0.064801306 42 38 39 -0.22978248 0.14538884 -0.96232122 0
-0.018958906 1.6243051 -0.06051432 44 42 41 0.44094649 -0.017980846 -0.89735323 0
-0.043537173 1.6543283 -0.064837433 101 95 87 -0.71272814 0.67957526 -0.17377019 0
-0.037750348 1.6562617 -0.066972822 93 88 82 0.72545475 0.57552415 0.37747496 0
-0.028366217 1.7086158 -0.06458661 138 133 129 -0.21168134 -0.88452768 0.41569433 0
-0.028820006 1.7124805 -0.06168244 129 125 119 -0.643062 0.75413215 -0.13325177 0
-0.35227618 0.0064530349 -0.053665321 220 200 173 0.16539313 0.97958791 -0.11424811 0
-0.31581652 0.0045231562 -0.051912475 222 205 175 -0.042129673 0.99832404 -0.039677192 0
-0.30327922 0.0039442927 -0.053271383 127 115 93 0.062460437 0.99606949 -0.062802672 0
